ply
format ascii 1.0
comment VCGLIB generated
element vertex 632
property float x
property float y
property float z
property float nx
property float ny
property float nz
property uchar red
property uchar green
property uchar blue
property uchar alpha
element face 0
property list uchar int vertex_indices
end_header
-0.181231 -0.486067 0.347534 0.0952322 -0.980296 0.173062 255 255 255 255 
-0.153733 -0.505596 0.324414 0.078689 -0.996638 0.0227994 255 255 255 255 
0.330095 -0.485312 -0.161767 -0.0374715 -0.993977 0.102989 255 255 255 255 
0.327314 -0.489487 -0.162392 0.029429 -0.99479 0.0976033 255 255 255 255 
0.349166 -0.500458 -0.188002 -0.016778 -0.99886 0.044685 255 255 255 255 
0.34608 -0.484652 0.35719 -0.114066 -0.989469 0.089104 255 255 255 255 
0.313577 -0.497104 0.351853 0.0206364 -0.9948 -0.0997362 255 255 255 255 
0.329864 -0.488374 0.322453 -0.141759 -0.988656 -0.0496421 255 255 255 255 
-0.139755 0.333254 0.514333 0.0937394 -0.0953869 0.991017 255 255 255 255 
-0.173629 0.333542 0.516284 0.0480058 -0.109579 0.992818 255 255 255 255 
-0.148801 0.316998 0.487359 0.048014 0.0821719 0.995461 255 255 255 255 
0.335911 -0.167227 0.486603 0.109461 -0.0449012 0.992976 255 255 255 255 
0.327904 -0.163395 0.485851 0.157949 -0.0736026 0.9847 255 255 255 255 
0.345104 -0.203289 0.495633 0.0344348 -0.0260192 0.999068 255 255 255 255 
0.332832 0.35573 0.503496 0.0451287 -0.0464021 0.997903 255 255 255 255 
0.314734 0.331915 0.514156 -0.113687 -3.50643e-006 0.993517 255 255 255 255 
0.347382 0.314151 0.500248 0.150876 0.0277642 0.988163 255 255 255 255 
0.143016 -0.3348 0.486005 -0.120924 0.0343583 0.992067 255 255 255 255 
0.197027 -0.334841 0.51621 0.0554277 0.0167654 0.998322 255 255 255 255 
0.163904 -0.321675 0.485618 -0.154737 -0.018136 0.987789 255 255 255 255 
-0.336076 0.162002 0.501184 0.113979 -0.0726859 0.990821 255 255 255 255 
-0.311487 0.143488 0.513962 -0.126774 0.0672566 0.989649 255 255 255 255 
-0.349655 0.201342 0.51474 0.0297972 -0.00467215 0.999545 255 255 255 255 
-0.351174 -0.345378 0.483414 -0.0192295 0.0800403 0.996606 255 255 255 255 
-0.324134 -0.343118 0.504519 0.0734617 0.135307 0.988077 255 255 255 255 
-0.336763 -0.296183 0.485946 -0.00526638 0.00173722 0.999985 255 255 255 255 
0.336457 0.497639 -0.171794 0.0745621 0.985447 0.152759 255 255 255 255 
0.356331 0.499531 -0.179511 -0.0735665 0.976376 0.203167 255 255 255 255 
0.305034 0.4958 -0.156812 -0.00839618 0.998513 0.05387 255 255 255 255 
-0.154932 0.488539 0.350283 0.00281882 0.998584 -0.0531164 255 255 255 255 
-0.173274 0.502205 0.309159 0.00968202 0.999867 0.0131499 255 255 255 255 
-0.179949 0.507789 0.360928 -0.0103154 0.999244 -0.0374909 255 255 255 255 
0.33965 0.514083 0.359304 -0.042121 0.99825 -0.0415056 255 255 255 255 
0.343038 0.513395 0.303929 -0.0101108 0.999194 -0.0388444 255 255 255 255 
0.300082 0.509222 0.352869 -0.00935343 0.989753 -0.142481 255 255 255 255 
-0.346441 0.489777 0.171709 -0.139829 0.988932 0.0496041 255 255 255 255 
-0.331666 0.485428 0.174313 -0.0462562 0.997711 0.049318 255 255 255 255 
-0.30677 0.515477 0.142101 -0.106235 0.994138 -0.0200896 255 255 255 255 
0.171763 0.490824 -0.356872 0.0828387 0.994841 -0.058555 255 255 255 255 
0.165632 0.508366 -0.328391 -0.0113969 0.999725 -0.020498 255 255 255 255 
0.173498 0.510473 -0.348015 -0.0127145 0.999888 0.00788334 255 255 255 255 
-0.355588 0.483954 -0.360389 0.0807889 0.985139 -0.15157 255 255 255 255 
-0.331432 0.502559 -0.31241 0.162708 0.974968 -0.151535 255 255 255 255 
-0.306197 0.486088 -0.328773 0.0745515 0.981913 -0.174038 255 255 255 255 
0.511785 -0.159419 0.352925 0.995388 -0.0845766 0.0452676 255 255 255 255 
0.48964 -0.176744 0.341296 0.990667 -0.135351 -0.0160849 255 255 255 255 
0.487156 -0.167798 0.320224 0.99215 -0.121563 -0.0293383 255 255 255 255 
0.493212 0.345298 -0.167711 0.983097 -0.15573 0.0962736 255 255 255 255 
0.51253 0.321896 -0.155347 0.99459 -0.0390315 0.0962686 255 255 255 255 
0.516509 0.343182 -0.17444 0.992823 -0.103724 0.0595386 255 255 255 255 
0.516764 0.33369 0.332317 0.992282 0.120713 0.0283699 255 255 255 255 
0.484267 0.317318 0.334103 0.986072 0.154183 -0.0623643 255 255 255 255 
0.510842 0.334961 0.300419 0.998695 -0.00602229 0.0507174 255 255 255 255 
0.511733 0.139559 -0.329608 0.99083 -0.0996485 -0.0912432 255 255 255 255 
0.517007 0.200278 -0.353996 0.99487 0.0327552 -0.095712 255 255 255 255 
0.508622 0.159259 -0.302669 0.97462 -0.156053 0.160512 255 255 255 255 
0.488952 -0.355422 0.165973 0.993272 -0.011804 -0.115203 255 255 255 255 
0.499353 -0.312912 0.150502 0.9896 -0.137207 -0.0432027 255 255 255 255 
0.486783 -0.342565 0.179634 0.992855 -0.0427499 -0.111409 255 255 255 255 
0.50768 -0.360633 -0.332281 0.99589 0.0243124 0.08724 255 255 255 255 
0.517077 -0.326939 -0.350573 0.988791 -0.0703702 0.131683 255 255 255 255 
0.483261 -0.336129 -0.306124 0.999356 -0.0258613 0.0248607 255 255 255 255 
-0.102393 -0.0889856 -0.505891 -0.0115652 0.0898693 -0.995886 255 255 255 255 
-0.0814867 -0.0627426 -0.503569 0.126822 0.0830966 -0.988439 255 255 255 255 
-0.0674071 -0.092171 -0.482821 0.0919613 0.109015 -0.989777 255 255 255 255 
-0.0961483 -0.333243 -0.51558 0.0399179 -0.137372 -0.989715 255 255 255 255 
-0.0927895 -0.329678 -0.494573 0.0163687 -0.0623726 -0.997919 255 255 255 255 
-0.0614761 -0.337081 -0.498618 0.0949176 0.0261787 -0.995141 255 255 255 255 
-0.345642 -0.0931828 -0.51559 0.134281 -0.238786 -0.961743 255 255 255 255 
-0.347811 -0.0602983 -0.515804 0.147581 -0.00373077 -0.989043 255 255 255 255 
-0.317523 -0.103928 -0.493873 0.0305695 -0.1039 -0.994118 255 255 255 255 
0.0957159 0.0919226 -0.501106 0.0286092 0.00962774 -0.999544 255 255 255 255 
0.110395 0.0542901 -0.488819 0.104902 0.0373327 -0.993782 255 255 255 255 
0.0736362 0.0969317 -0.514536 0.131767 -0.00980913 -0.991232 255 255 255 255 
0.090914 0.357148 -0.487554 0.0390981 0.0842188 -0.99568 255 255 255 255 
0.105371 0.317316 -0.507232 -0.0244815 -0.0891688 -0.995716 255 255 255 255 
0.0752506 0.356587 -0.511644 -0.0268807 0.0206561 -0.999425 255 255 255 255 
0.339691 0.108468 -0.49254 -0.197775 0.00705804 -0.980222 255 255 255 255 
0.345641 0.0633072 -0.506859 -0.104141 -0.153201 -0.982692 255 255 255 255 
0.329097 0.0835187 -0.504556 -0.16923 -0.0428928 -0.984643 255 255 255 255 
-0.516529 -0.106927 -0.0883164 -0.991974 -0.00712431 0.12624 255 255 255 255 
-0.515915 -0.0774957 -0.0712977 -0.986658 -0.0630341 0.150107 255 255 255 255 
-0.48888 -0.0590466 -0.107873 -0.991562 0.124732 -0.0352981 255 255 255 255 
-0.496184 -0.106789 -0.336133 -0.999516 0.0192809 0.0244345 255 255 255 255 
-0.517007 -0.0783584 -0.325655 -0.995178 0.0171819 0.0965693 255 255 255 255 
-0.483471 -0.0533767 -0.350658 -0.971509 0.207822 -0.113929 255 255 255 255 
-0.496462 -0.338394 -0.109843 -0.987034 0.0200167 -0.159258 255 255 255 255 
-0.498308 -0.335852 -0.0634753 -0.996356 -0.00105603 -0.0852805 255 255 255 255 
-0.49724 -0.32329 -0.1037 -0.993868 -0.0288979 -0.10673 255 255 255 255 
-0.512344 0.0823706 0.0983103 -0.999007 -0.00406676 0.0443613 255 255 255 255 
-0.513711 0.0825313 0.0745 -0.999826 0.0169368 -0.00784652 255 255 255 255 
-0.496101 0.0513532 0.104293 -0.989302 -0.140534 -0.0391396 255 255 255 255 
-0.492725 0.106946 0.343236 -0.999077 0.00549504 0.0426018 255 255 255 255 
-0.500714 0.0799855 0.324076 -0.991192 0.0309048 -0.128777 255 255 255 255 
-0.514647 0.0732588 0.340228 -0.992085 0.0473717 -0.116286 255 255 255 255 
-0.50881 0.341992 0.0891971 -0.972985 -0.0972293 0.209398 255 255 255 255 
-0.509724 0.352234 0.0702383 -0.991647 0.0345523 -0.124267 255 255 255 255 
-0.508436 0.307261 0.0835473 -0.995662 -0.0378413 0.0850056 255 255 255 255 
-0.107299 -0.487722 -0.106866 -0.0508489 -0.998468 -0.0218252 255 255 255 255 
-0.0556296 -0.494134 -0.0887456 0.0649647 -0.995008 -0.0757604 255 255 255 255 
-0.0911963 -0.511614 -0.0477195 0.00467481 -0.993573 -0.113097 255 255 255 255 
-0.342994 -0.51261 -0.0948902 0.138679 -0.988385 -0.0621543 255 255 255 255 
-0.318201 -0.500051 -0.106025 0.0795493 -0.996371 0.0302814 255 255 255 255 
-0.327389 -0.511893 -0.0726869 0.131314 -0.991227 -0.015031 255 255 255 255 
-0.0776459 -0.506067 -0.334611 -0.0212463 -0.986561 -0.162007 255 255 255 255 
-0.0762687 -0.483287 -0.341466 -0.0418835 -0.986768 -0.156636 255 255 255 255 
-0.0795045 -0.489857 -0.320051 -0.0822986 -0.996087 -0.0322011 255 255 255 255 
0.0852145 -0.482777 0.0890258 0.0178659 -0.99917 -0.0366119 255 255 255 255 
0.0540967 -0.491612 0.10594 0.062468 -0.994327 -0.0860858 255 255 255 255 
0.0814529 -0.484187 0.0547141 -0.0545409 -0.995299 0.0800371 255 255 255 255 
0.329291 -0.489597 0.0914838 0.0933575 -0.994024 0.0565731 255 255 255 255 
0.29692 -0.499785 0.0817225 0.0732788 -0.990018 0.120395 255 255 255 255 
0.357596 -0.485828 0.0694613 0.0264865 -0.970924 0.23792 255 255 255 255 
0.0991434 -0.485147 0.354571 -0.122574 -0.99223 -0.0213271 255 255 255 255 
0.0524167 -0.48581 0.345085 0.0653874 -0.990474 0.121188 255 255 255 255 
0.102531 -0.502771 0.299896 -0.0502029 -0.985461 0.162314 255 255 255 255 
0.0899614 0.0856977 0.505836 -0.0397778 0.102301 0.993958 255 255 255 255 
0.0456188 0.108048 0.48937 -0.112358 -0.0872711 0.989828 255 255 255 255 
0.0963153 0.0720007 0.504058 -0.0878293 0.0366256 0.995462 255 255 255 255 
0.355584 0.0819118 0.516957 0.0303725 0.105039 0.994004 255 255 255 255 
0.308955 0.0844343 0.509265 -0.0223039 -0.00474513 0.99974 255 255 255 255 
0.358198 0.0481731 0.501435 -0.0120282 -0.143703 0.989548 255 255 255 255 
0.087976 0.355796 0.484472 -0.129083 0.0138882 0.991536 255 255 255 255 
0.0606155 0.32655 0.494442 -0.0199718 -0.101613 0.994624 255 255 255 255 
0.0805194 0.311624 0.505939 -0.21876 -0.0134359 0.975686 255 255 255 255 
-0.0850327 -0.0906486 0.485184 0.102378 -0.0734604 0.99203 255 255 255 255 
-0.0646255 -0.077021 0.505482 0.0689061 -0.0350573 0.997007 255 255 255 255 
-0.0939451 -0.0611261 0.511173 0.125944 -0.133472 0.983017 255 255 255 255 
-0.327161 -0.103753 0.509043 0.0514418 -0.0251359 0.99836 255 255 255 255 
-0.301497 -0.0871725 0.516213 -0.0169586 0.0235825 0.999578 255 255 255 255 
-0.330384 -0.0775776 0.50568 0.0860762 0.0319258 0.995777 255 255 255 255 
-0.105568 -0.354328 0.511499 -0.0855007 -0.0272782 0.995965 255 255 255 255 
-0.070546 -0.337769 0.501898 -0.0106019 0.00734418 0.999917 255 255 255 255 
-0.0966484 -0.31552 0.512646 0.0416528 0.136956 0.989701 255 255 255 255 
0.0808683 0.487705 0.0826211 0.0897219 0.995384 0.0340638 255 255 255 255 
0.104629 0.490644 0.0772128 -0.0396325 0.99845 0.0390854 255 255 255 255 
0.0725452 0.500522 0.0892034 0.0620907 0.993679 0.0935216 255 255 255 255 
0.0849343 0.490541 0.332366 0.00155906 0.99832 0.0579281 255 255 255 255 
0.111057 0.48433 0.30398 -0.0618336 0.994016 0.0900552 255 255 255 255 
0.0533852 0.483412 0.338704 0.0553278 0.998421 -0.00970349 255 255 255 255 
0.331412 0.495384 0.0954252 0.166892 0.979618 0.111786 255 255 255 255 
0.329169 0.513186 0.0774951 0.115977 0.992618 0.035472 255 255 255 255 
0.329527 0.514319 0.0807012 0.115977 0.992618 0.035472 255 255 255 255 
-0.102079 0.516404 -0.0868321 -0.201987 0.965358 -0.165184 255 255 255 255 
-0.0864874 0.490885 -0.0757983 -0.124154 0.984681 -0.122433 255 255 255 255 
-0.0729459 0.516702 -0.0949166 -0.0761752 0.98878 -0.128494 255 255 255 255 
-0.103223 0.50529 -0.33619 0.201011 0.978546 -0.0451975 255 255 255 255 
-0.0904023 0.514401 -0.327808 0.145663 0.989033 0.0244277 255 255 255 255 
-0.0470947 0.48285 -0.354856 0.135738 0.990135 -0.0347636 255 255 255 255 
-0.342196 0.497169 -0.0944356 0.0276296 0.986699 -0.160191 255 255 255 255 
-0.327334 0.509572 -0.0779677 -0.0690136 0.990321 -0.12042 255 255 255 255 
-0.327591 0.493629 -0.0843254 -0.0787992 0.993 -0.0879861 255 255 255 255 
0.48542 0.100974 0.109042 0.976698 -0.209404 0.0470188 255 255 255 255 
0.484789 0.0522539 0.107578 0.986015 0.0990668 -0.134016 255 255 255 255 
0.484367 0.09618 0.0651087 0.977202 -0.144086 0.155935 255 255 255 255 
0.514274 0.332143 0.0818758 0.988801 -0.131414 0.0707266 255 255 255 255 
0.510593 0.324584 0.0992756 0.994433 -0.0893405 0.0558713 255 255 255 255 
0.489287 0.356185 0.0490971 0.985139 0.0846283 -0.149467 255 255 255 255 
0.515277 0.0794061 0.3287 0.996295 -0.078748 0.0345684 255 255 255 255 
0.499397 0.0751957 0.333426 0.996718 -0.0635071 0.0501985 255 255 255 255 
0.484677 0.0914193 0.308854 0.994229 -0.0970835 0.0456384 255 255 255 255 
0.482905 -0.0799073 -0.0809729 0.996288 -0.0860791 -0.000832833 255 255 255 255 
0.483212 -0.0481477 -0.104238 0.9854 -0.168124 -0.0268762 255 255 255 255 
0.514642 -0.0769798 -0.055378 0.999184 -0.0399597 -0.00583312 255 255 255 255 
0.49888 -0.327484 -0.080031 0.99867 -0.00758544 0.0509967 255 255 255 255 
0.514939 -0.310799 -0.0929682 0.999629 0.0205235 0.0178956 255 255 255 255 
0.504448 -0.353794 -0.0682666 0.994948 -0.0907728 0.0428771 255 255 255 255 
0.48822 -0.104719 -0.332484 0.985157 -0.137542 0.102701 255 255 255 255 
0.503567 -0.0749049 -0.345048 0.997818 -0.0536201 -0.0385158 255 255 255 255 
0.500883 -0.102411 -0.299575 0.991934 -0.100931 0.0766768 255 255 255 255 
-0.406099 0.327682 -0.494293 -0.00623808 0.0269817 -0.999617 255 255 255 255 
-0.424783 0.333903 -0.50002 -0.135144 -0.0299923 -0.990372 255 255 255 255 
-0.403858 0.339217 -0.512852 -0.0134807 0.0655645 -0.997757 255 255 255 255 
-0.162906 0.047914 -0.507161 -0.10846 -0.0453023 -0.993068 255 255 255 255 
-0.197356 0.104473 -0.507718 0.0757321 0.0585661 -0.995407 255 255 255 255 
-0.15174 0.0863711 -0.492455 -0.111018 0.107816 -0.987953 255 255 255 255 
-0.42092 0.0791909 -0.516752 -0.019817 -0.0266816 -0.999448 255 255 255 255 
-0.452157 0.099136 -0.504172 -0.258585 -0.0658293 -0.963743 255 255 255 255 
-0.419798 0.106697 -0.508751 -0.0508755 -0.0163681 -0.998571 255 255 255 255 
0.0778742 -0.182153 -0.513697 -0.0231572 0.0767393 -0.996782 255 255 255 255 
0.0647376 -0.165724 -0.510638 -0.0454847 0.0167716 -0.998824 255 255 255 255 
0.100821 -0.151467 -0.488315 -0.107005 -0.0550973 -0.992731 255 255 255 255 
0.344613 -0.446487 -0.50502 -0.00740374 0.00389596 -0.999965 255 255 255 255 
0.327594 -0.396003 -0.49009 0.010009 0.0715127 -0.99739 255 255 255 255 
0.342867 -0.395174 -0.486565 -0.0117561 0.00674648 -0.999908 255 255 255 255 
0.106432 -0.440873 -0.488854 -0.0404612 -0.168084 -0.984942 255 255 255 255 
0.0676851 -0.392535 -0.49967 -0.0259292 -0.0870039 -0.99587 255 255 255 255 
0.093205 -0.389089 -0.517007 0.122149 0.0211283 -0.992287 255 255 255 255 
-0.414288 -0.195518 -0.503352 0.0247311 0.0477285 -0.998554 255 255 255 255 
-0.431085 -0.139079 -0.50165 0.156667 -0.0316761 -0.987144 255 255 255 255 
-0.394236 -0.17072 -0.500614 0.03197 0.263342 -0.964173 255 255 255 255 
-0.160608 -0.430977 -0.50065 -0.00389724 0.0652803 -0.997859 255 255 255 255 
-0.195028 -0.400066 -0.497688 -0.0289871 -0.136916 -0.990159 255 255 255 255 
-0.1477 -0.390412 -0.492373 0.0034712 -0.0231553 -0.999726 255 255 255 255 
-0.395478 -0.447432 -0.515922 -0.0620891 0.124164 -0.990317 255 255 255 255 
-0.427717 -0.409386 -0.486143 0.158985 0.0353169 -0.986649 255 255 255 255 
-0.422882 -0.414352 -0.514956 0.00960789 0.00761358 -0.999925 255 255 255 255 
0.404962 -0.326147 -0.499797 0.0452855 -0.0161789 -0.998843 255 255 255 255 
0.433609 -0.333741 -0.514772 0.131154 0.086475 -0.987583 255 255 255 255 
0.401717 -0.337182 -0.495162 0.0671018 -0.00157283 -0.997745 255 255 255 255 
0.172093 -0.0695998 -0.499087 0.0443692 -0.0365263 -0.998347 255 255 255 255 
0.178801 -0.0805078 -0.485152 -0.0668659 -0.023478 -0.997486 255 255 255 255 
0.152881 -0.101281 -0.489271 0.0956146 0.00915788 -0.995376 255 255 255 255 
0.38918 -0.0541252 -0.515027 -0.0610206 0.0933746 -0.993759 255 255 255 255 
0.436843 -0.0883682 -0.49564 0.00101523 -0.0972544 -0.995259 255 255 255 255 
0.405743 -0.0993168 -0.491577 0.0542199 -0.143646 -0.988143 255 255 255 255 
-0.0991128 0.18636 -0.492677 0.0206424 0.0274412 -0.99941 255 255 255 255 
-0.0636603 0.148743 -0.501831 0.0505116 0.0297764 -0.99828 255 255 255 255 
-0.110017 0.16677 -0.511358 -0.0332078 -0.0341263 -0.998866 255 255 255 255 
-0.335773 0.433384 -0.517151 -0.0744208 -0.150194 -0.985851 255 255 255 255 
-0.321248 0.394076 -0.512185 -0.204912 -0.052926 -0.977348 255 255 255 255 
-0.334323 0.400567 -0.485248 -0.1227 -0.0621242 -0.990498 255 255 255 255 
-0.109345 0.430003 -0.503291 -0.00490996 0.0972437 -0.995248 255 255 255 255 
-0.0745423 0.400589 -0.492338 0.186896 0.155429 -0.970006 255 255 255 255 
-0.0900471 0.415888 -0.502127 0.0117145 0.0582195 -0.998235 255 255 255 255 
0.404704 0.182241 -0.498984 -0.0493817 -0.00435558 -0.998771 255 255 255 255 
0.44929 0.157807 -0.502912 -0.0336619 0.0416783 -0.998564 255 255 255 255 
0.411604 0.155056 -0.492817 0.0179724 0.163561 -0.986369 255 255 255 255 
0.162884 0.451659 -0.505085 -0.0116041 0.0218656 -0.999694 255 255 255 255 
0.184589 0.405687 -0.493834 0.105572 0.0664154 -0.992191 255 255 255 255 
0.170308 0.398647 -0.51688 0.00718475 0.0528971 -0.998574 255 255 255 255 
0.411604 0.437176 -0.5046 -0.0983474 0.231738 -0.967794 255 255 255 255 
0.422764 0.422391 -0.493877 0.104317 0.0734878 -0.991825 255 255 255 255 
0.410207 0.403473 -0.511571 0.0304964 0.00485247 -0.999523 255 255 255 255 
-0.486593 -0.388954 0.325501 -0.999257 0.0376115 -0.00838364 255 255 255 255 
-0.482911 -0.428904 0.347754 -0.978237 -0.167871 -0.121954 255 255 255 255 
-0.49162 -0.413064 0.358252 -0.998619 0.0095561 -0.0516639 255 255 255 255 
-0.50651 -0.15629 0.0479785 -0.99976 -0.0167091 0.0141892 255 255 255 255 
-0.493862 -0.20294 0.0884063 -0.995054 0.0146354 0.0982503 255 255 255 255 
-0.484807 -0.171796 0.0993749 -0.997579 0.0669862 0.0186695 255 255 255 255 
-0.496058 -0.42328 0.0718125 -0.999576 0.0259503 0.0131684 255 255 255 255 
-0.51448 -0.434818 0.098305 -0.997069 -0.0496908 -0.0581664 255 255 255 255 
-0.489164 -0.394289 0.100598 -0.999802 -0.0102409 -0.0170686 255 255 255 255 
-0.491226 0.106251 -0.174449 -0.995545 -0.0937497 -0.0100658 255 255 255 255 
-0.488624 0.0600806 -0.160029 -0.997677 0.0659072 0.0172431 255 255 255 255 
-0.50687 0.0908506 -0.161331 -0.999592 -0.0282425 -0.00416444 255 255 255 255 
-0.491893 0.340723 -0.446954 -0.983636 0.0925423 -0.154584 255 255 255 255 
-0.489714 0.324825 -0.407979 -0.99839 0.0389041 -0.0412729 255 255 255 255 
-0.495586 0.357453 -0.41847 -0.998371 -7.01497e-005 -0.0570547 255 255 255 255 
-0.505048 0.109526 -0.431991 -0.974443 0.164387 0.153095 255 255 255 255 
-0.51706 0.0501564 -0.423235 -0.996289 0.065438 0.0559142 255 255 255 255 
-0.495534 0.0936744 -0.42092 -0.990897 0.0819246 0.10682 255 255 255 255 
-0.510747 -0.403324 -0.175398 -0.992831 0.117435 0.0222429 255 255 255 255 
-0.508578 -0.44385 -0.166535 -0.976007 -0.208289 -0.0634508 255 255 255 255 
-0.513639 -0.395555 -0.150431 -0.991548 0.11978 -0.0498633 255 255 255 255 
-0.514454 -0.14986 -0.442006 -0.996941 0.0781592 0.000749198 255 255 255 255 
-0.508466 -0.20373 -0.41917 -0.995765 -0.0750447 -0.0531166 255 255 255 255 
-0.485993 -0.143077 -0.422503 -0.996791 0.0735631 -0.0315657 255 255 255 255 
-0.488241 -0.401202 -0.420477 -0.999983 -0.00244705 0.00519849 255 255 255 255 
-0.490313 -0.45194 -0.415413 -0.982716 -0.184218 -0.0182541 255 255 255 255 
-0.486633 -0.415825 -0.423175 -0.997872 0.057312 0.0311006 255 255 255 255 
-0.491616 0.398468 -0.295932 -0.989445 -0.0793507 0.121255 255 255 255 255 
-0.516399 0.444868 -0.334938 -0.998916 -0.0203419 -0.0418808 255 255 255 255 
-0.515594 0.397282 -0.329338 -0.99958 0.0159382 -0.0242098 255 255 255 255 
-0.510409 0.165325 -0.0686145 -0.99562 0.0668074 -0.0654099 255 255 255 255 
-0.485139 0.19208 -0.100919 -0.997818 -0.0477157 0.0456316 255 255 255 255 
-0.499651 0.146781 -0.0911487 -0.999121 0.022643 0.0352678 255 255 255 255 
-0.491961 0.391151 -0.0476106 -0.999635 -0.0260506 -0.00711003 255 255 255 255 
-0.502287 0.422158 -0.0776882 -0.995252 0.0096645 -0.0968474 255 255 255 255 
-0.487289 0.421374 -0.0783278 -0.995812 0.063206 -0.0660549 255 255 255 255 
-0.513915 -0.107353 0.175682 -0.995838 0.0901331 0.0135459 255 255 255 255 
-0.489012 -0.0535448 0.160431 -0.995073 0.0967105 0.0218459 255 255 255 255 
-0.511408 -0.110156 0.163017 -0.994328 0.0689675 0.0809597 255 255 255 255 
-0.509696 -0.332249 0.440802 -0.993505 0.0578843 -0.0979642 255 255 255 255 
-0.498776 -0.314415 0.41561 -0.996396 -0.00633886 -0.0845851 255 255 255 255 
-0.503201 -0.332348 0.407551 -0.997931 0.047051 0.0438062 255 255 255 255 
-0.514863 -0.102014 0.43807 -0.994492 -0.0856356 0.0604327 255 255 255 255 
-0.511228 -0.0551264 0.412854 -0.972683 0.150665 -0.176603 255 255 255 255 
-0.514253 -0.107281 0.398533 -0.99701 -0.0655831 -0.0408763 255 255 255 255 
-0.484098 0.39685 0.182757 -0.989523 0.141478 -0.0287629 255 255 255 255 
-0.483881 0.424879 0.146294 -0.986451 0.161017 -0.0314276 255 255 255 255 
-0.511762 0.4046 0.161648 -0.985425 0.166328 0.0356864 255 255 255 255 
-0.487858 0.146698 0.441379 -0.993075 -0.0742057 0.0910817 255 255 255 255 
-0.507808 0.178848 0.410055 -0.995946 -0.0895705 0.00830611 255 255 255 255 
-0.495162 0.167327 0.395346 -0.997183 -0.0744875 -0.00884459 255 255 255 255 
-0.492086 0.410028 0.442665 -0.941267 -0.0176597 0.337201 255 255 255 255 
-0.505334 0.444974 0.423238 -0.997709 0.0561765 0.037699 255 255 255 255 
-0.509712 0.397886 0.416739 -0.994427 0.0639609 -0.0838093 255 255 255 255 
0.300835 -0.49397 -0.418385 0.0314863 -0.998709 0.0398645 255 255 255 255 
0.355696 -0.501553 -0.42534 0.0251247 -0.996996 -0.0732614 255 255 255 255 
0.345167 -0.494296 -0.398076 0.0959683 -0.995304 -0.0126644 255 255 255 255 
0.0668563 -0.487808 -0.160863 0.166237 -0.985988 0.0138945 255 255 255 255 
0.0799168 -0.483136 -0.177264 0.217461 -0.976059 0.00447321 255 255 255 255 
0.0860793 -0.494051 -0.147406 0.167768 -0.971726 -0.166141 255 255 255 255 
0.0744186 -0.493968 -0.421815 0.0381216 -0.992185 -0.118809 255 255 255 255 
0.0886663 -0.498249 -0.422316 -0.0457266 -0.996077 -0.075768 255 255 255 255 
0.0921097 -0.499073 -0.423455 -0.0457266 -0.996077 -0.075768 255 255 255 255 
-0.193525 -0.515495 0.0913453 -0.0402787 -0.979259 -0.198568 255 255 255 255 
-0.166729 -0.483585 0.0651689 -0.242291 -0.961537 0.129391 255 255 255 255 
-0.139607 -0.496421 0.0874738 -0.078473 -0.996052 -0.0415099 255 255 255 255 
-0.431638 -0.486875 0.351137 -0.153317 -0.987848 -0.025499 255 255 255 255 
-0.40336 -0.515131 0.302846 -0.108862 -0.993983 -0.0121286 255 255 255 255 
-0.394172 -0.500706 0.329693 -0.0353462 -0.999324 0.0100887 255 255 255 255 
-0.451749 -0.517052 0.103823 0.0673673 -0.995 -0.0737366 255 255 255 255 
-0.403524 -0.516206 0.0464085 0.0246988 -0.997983 0.0584896 255 255 255 255 
-0.389399 -0.496721 0.106123 0.0406721 -0.999097 0.0122705 255 255 255 255 
-0.173743 -0.499074 -0.416856 0.0995523 -0.995008 -0.00701598 255 255 255 255 
-0.152369 -0.505662 -0.454392 0.0503855 -0.995189 -0.0840311 255 255 255 255 
-0.153596 -0.510794 -0.399293 0.0706151 -0.997386 0.0152976 255 255 255 255 
-0.425836 -0.490959 -0.15836 -0.0308699 -0.998775 -0.0386843 255 255 255 255 
-0.416249 -0.500154 -0.195225 0.0662423 -0.98926 -0.130297 255 255 255 255 
-0.415966 -0.501228 -0.166213 0.00242342 -0.998595 -0.0529325 255 255 255 255 
-0.423017 -0.50833 -0.408285 -0.0565888 -0.994756 -0.0851978 255 255 255 255 
-0.422421 -0.514558 -0.445421 -0.00349668 -0.998366 -0.0570268 255 255 255 255 
-0.395582 -0.515622 -0.398701 0.0158299 -0.987016 -0.159839 255 255 255 255 
-0.322882 -0.489964 0.420157 -0.0184687 -0.999361 0.0305875 255 255 255 255 
-0.34523 -0.516484 0.433932 0.165878 -0.980155 -0.108543 255 255 255 255 
-0.353197 -0.486777 0.389196 0.17696 -0.981268 0.0761423 255 255 255 255 
-0.0698694 -0.510403 0.157531 -0.142521 -0.989694 0.0139462 255 255 255 255 
-0.0827121 -0.515864 0.198597 -0.095874 -0.992918 0.0701589 255 255 255 255 
-0.0875753 -0.503094 0.143849 -0.226241 -0.972302 0.0586848 255 255 255 255 
-0.0756503 -0.507189 0.391745 0.128181 -0.975062 0.181174 255 255 255 255 
-0.0965162 -0.485247 0.434996 0.00943977 -0.990855 0.134601 255 255 255 255 
-0.0899815 -0.50781 0.400822 -0.0785894 -0.99069 0.111163 255 255 255 255 
0.182657 -0.486981 -0.0964253 -0.115001 -0.989198 0.0908988 255 255 255 255 
0.160514 -0.495476 -0.0491341 0.0461452 -0.998928 -0.00361382 255 255 255 255 
0.155487 -0.498087 -0.0944208 -0.0559388 -0.992842 0.105527 255 255 255 255 
0.440207 -0.512864 -0.359167 0.0712269 -0.997434 -0.00722631 255 255 255 255 
0.413924 -0.505268 -0.322776 -0.0791934 -0.993134 0.0860998 255 255 255 255 
0.392197 -0.497753 -0.337588 -0.125121 -0.991268 0.0416128 255 255 255 255 
0.434079 -0.495323 -0.0955425 -0.107831 -0.992555 0.0566412 255 255 255 255 
0.416193 -0.483723 -0.0548811 -0.0209116 -0.990937 -0.132689 255 255 255 255 
0.402294 -0.492943 -0.107209 -0.00166842 -0.999476 0.0323226 255 255 255 255 
0.183318 -0.486988 0.412096 -0.0685998 -0.993668 0.0889874 255 255 255 255 
0.152769 -0.499763 0.451179 0.161489 -0.984603 0.0669213 255 255 255 255 
0.148432 -0.483185 0.401529 -0.0782715 -0.996147 0.0395538 255 255 255 255 
0.420674 -0.508791 0.169343 0.157538 -0.984848 0.072504 255 255 255 255 
0.418894 -0.511673 0.179677 0.139024 -0.985645 0.0957963 255 255 255 255 
0.391585 -0.506724 0.141521 -0.069295 -0.99178 -0.107566 255 255 255 255 
0.447821 -0.488254 0.412618 0.177692 -0.964754 -0.194101 255 255 255 255 
0.421757 -0.511982 0.45013 0.054509 -0.996429 0.0644801 255 255 255 255 
0.398354 -0.505315 0.423265 0.0622098 -0.987768 -0.142982 255 255 255 255 
-0.306421 0.409785 0.513281 0.0509426 0.059138 0.996949 255 255 255 255 
-0.348687 0.454002 0.500328 0.105853 0.132463 0.98552 255 255 255 255 
-0.336773 0.401758 0.492153 0.0915626 0.0682109 0.993461 255 255 255 255 
-0.0658953 0.149291 0.512838 0.0818843 -0.0744691 0.993856 255 255 255 255 
-0.0925379 0.184139 0.507717 0.0614826 -0.0260904 0.997767 255 255 255 255 
-0.0774598 0.144936 0.501011 0.160024 0.0632727 0.985083 255 255 255 255 
-0.0569924 0.420061 0.487247 -0.000923078 0.0537215 0.998556 255 255 255 255 
-0.0917619 0.4361 0.484554 0.0443993 -0.00715089 0.998988 255 255 255 255 
-0.098784 0.414459 0.504464 0.0304776 -0.0804185 0.996295 255 255 255 255 
0.19327 -0.0963693 0.482829 -0.0917933 -0.0459934 0.994715 255 255 255 255 
0.166822 -0.0459582 0.505052 -0.048518 -0.261709 0.963927 255 255 255 255 
0.168577 -0.0844692 0.494617 0.00603248 -0.0512751 0.998666 255 255 255 255 
0.432604 -0.342556 0.500036 0.00072839 -0.0206167 0.999787 255 255 255 255 
0.395015 -0.303495 0.506517 -0.00384493 0.0498026 0.998752 255 255 255 255 
0.418195 -0.357631 0.483274 -0.0155486 0.00408393 0.999871 255 255 255 255 
0.425521 -0.0845358 0.492302 -0.0178403 0.132139 0.991071 255 255 255 255 
0.421996 -0.0788653 0.509675 0.0536533 0.0827466 0.995125 255 255 255 255 
0.398255 -0.107905 0.505825 -0.0259632 -0.0142762 0.999561 255 255 255 255 
0.189223 0.400863 0.493657 -0.0756761 0.0386012 0.996385 255 255 255 255 
0.166774 0.4274 0.505737 0.070177 0.00708479 0.99751 255 255 255 255 
0.17286 0.402291 0.496956 0.0332391 0.0544636 0.997962 255 255 255 255 
0.428202 0.162285 0.494859 -0.103472 -0.0952799 0.990058 255 255 255 255 
0.412425 0.204764 0.500304 0.0275429 -0.0720026 0.997024 255 255 255 255 
0.42196 0.139856 0.48539 -0.031949 -0.120823 0.99216 255 255 255 255 
0.424635 0.41685 0.498608 0.109418 0.0397545 0.993201 255 255 255 255 
0.403708 0.430011 0.493488 0.161407 0.172861 0.971631 255 255 255 255 
0.399677 0.420805 0.490215 0.155433 0.0501347 0.986573 255 255 255 255 
0.316699 -0.389242 0.490811 -0.0344865 -0.00532546 0.999391 255 255 255 255 
0.349247 -0.427867 0.488764 -0.185824 0.0568409 0.980937 255 255 255 255 
0.341253 -0.399369 0.490148 -0.10268 0.0483495 0.993539 255 255 255 255 
0.0778281 -0.151643 0.494271 -0.0621314 0.0861325 0.994344 255 255 255 255 
0.0851373 -0.173233 0.509365 -0.0979678 0.110943 0.988986 255 255 255 255 
0.109688 -0.147898 0.514189 -0.0400602 0.0435982 0.998246 255 255 255 255 
0.068846 -0.403372 0.50163 -0.0221504 0.0461429 0.998689 255 255 255 255 
0.0829087 -0.433944 0.484607 -0.0182501 -0.0208935 0.999615 255 255 255 255 
0.110291 -0.398336 0.494796 -0.100687 0.0190685 0.994735 255 255 255 255 
-0.201603 0.105952 0.506168 0.0269506 -0.0450802 0.99862 255 255 255 255 
-0.167343 0.0578276 0.494882 0.110003 -0.0114357 0.993866 255 255 255 255 
-0.159113 0.0998243 0.498034 0.0290421 -0.137297 0.990104 255 255 255 255 
-0.444143 0.337649 0.503283 -0.255324 -0.0699526 0.964322 255 255 255 255 
-0.39312 0.298124 0.508429 0.0317763 0.0444596 0.998506 255 255 255 255 
-0.420745 0.333398 0.507547 0.0538699 0.114285 0.991986 255 255 255 255 
-0.447723 0.0813409 0.486457 -0.127837 -0.0613933 0.989893 255 255 255 255 
-0.407738 0.0594991 0.510216 -0.0813735 -0.0680556 0.994357 255 255 255 255 
-0.401248 0.0894878 0.484289 0.00304475 0.0178042 0.999837 255 255 255 255 
-0.176941 -0.401979 0.489806 0.0768984 0.0605191 0.995201 255 255 255 255 
-0.1427 -0.441055 0.486446 0.0493281 -0.213216 0.975759 255 255 255 255 
-0.172468 -0.41151 0.512832 0.0945063 0.0897573 0.99147 255 255 255 255 
-0.447684 -0.172041 0.511707 -0.0506645 0.109363 0.99271 255 255 255 255 
-0.406166 -0.171529 0.515975 0.0181195 0.0659733 0.997657 255 255 255 255 
-0.418815 -0.150481 0.504969 -0.00386919 0.0769111 0.99703 255 255 255 255 
-0.444229 -0.417352 0.501927 -0.142934 -0.143342 0.979297 255 255 255 255 
-0.416765 -0.448489 0.494744 -0.0847753 -0.288185 0.953815 255 255 255 255 
-0.408837 -0.418957 0.507401 -0.0319439 -0.0365357 0.998822 255 255 255 255 
0.416548 0.509024 -0.306899 0.0553541 0.992959 0.10473 255 255 255 255 
0.447416 0.511298 -0.351654 0.203252 0.934815 0.29122 255 255 255 255 
0.400013 0.492213 -0.331811 0.00377508 0.998783 -0.0491753 255 255 255 255 
0.143405 0.513924 -0.0663351 -0.0454144 0.998741 0.0213141 255 255 255 255 
0.203283 0.494353 -0.0779726 0.0481467 0.998541 -0.0244382 255 255 255 255 
0.149383 0.506533 -0.0882561 0.0141354 0.997119 -0.0745223 255 255 255 255 
0.410896 0.507633 -0.0481244 0.0522592 0.998316 -0.0251873 255 255 255 255 
0.454681 0.489038 -0.0919173 0.332447 0.926403 -0.176797 255 255 255 255 
0.405418 0.504522 -0.0818251 -0.0837452 0.993057 -0.082614 255 255 255 255 
-0.0998074 0.501908 0.178199 -0.0122874 0.994089 -0.107867 255 255 255 255 
-0.064209 0.500215 0.150193 -6.97119e-005 0.999552 0.0299385 255 255 255 255 
-0.109748 0.500351 0.152754 -0.0468937 0.99358 -0.102956 255 255 255 255 
-0.329785 0.486912 0.421582 0.102163 0.990665 0.0902511 255 255 255 255 
-0.303784 0.487593 0.393654 0.0128049 0.995247 0.0965352 255 255 255 255 
-0.328188 0.508457 0.39903 0.0333056 0.998465 -0.0442558 255 255 255 255 
-0.0952835 0.490807 0.43788 0.0681288 0.944685 0.320826 255 255 255 255 
-0.0776991 0.486756 0.416326 0.0193836 0.99475 0.100483 255 255 255 255 
-0.0815988 0.486563 0.405113 -0.0792879 0.996604 -0.022203 255 255 255 255 
0.3923 0.492474 0.187979 -0.0774485 0.99603 -0.0438796 255 255 255 255 
0.451809 0.502576 0.142571 0.114406 0.986866 -0.114045 255 255 255 255 
0.395672 0.507006 0.169621 -0.165628 0.985576 -0.0347473 255 255 255 255 
0.160108 0.514453 0.424249 -0.0263654 0.999459 -0.0196672 255 255 255 255 
0.203829 0.486874 0.41702 -0.0357065 0.992023 0.120898 255 255 255 255 
0.139121 0.485657 0.422941 0.0224039 0.999487 0.0228998 255 255 255 255 
0.423299 0.484105 0.442132 0.0356641 0.994251 0.10096 255 255 255 255 
0.427009 0.493197 0.410897 0.115359 0.982435 0.146674 255 255 255 255 
0.391394 0.511746 0.413327 0.0205781 0.991624 0.127507 255 255 255 255 
-0.392916 0.505749 0.326307 0.073892 0.992424 0.0981522 255 255 255 255 
-0.443028 0.499841 0.339899 -0.141642 0.98922 0.0371679 255 255 255 255 
-0.398183 0.511446 0.32785 0.073892 0.992424 0.0981522 255 255 255 255 
-0.148524 0.509154 0.0726382 0.112405 0.992878 0.0394802 255 255 255 255 
-0.187136 0.505881 0.0967636 0.0241154 0.997451 -0.0671541 255 255 255 255 
-0.168381 0.500665 0.101822 0.202085 0.971894 0.120763 255 255 255 255 
-0.418755 0.490964 0.0487397 0.0665762 0.98712 0.145472 255 255 255 255 
-0.449153 0.485934 0.0854661 -0.298268 0.953413 0.0451719 255 255 255 255 
-0.406348 0.491155 0.0809486 0.147936 0.987987 -0.0446902 255 255 255 255 
0.0797381 0.510772 -0.173678 0.0635578 0.99792 -0.0107307 255 255 255 255 
0.0533016 0.483448 -0.139046 0.0255 0.990532 0.134891 255 255 255 255 
0.0902913 0.50662 -0.160832 0.120117 0.991551 0.0489729 255 255 255 255 
0.32737 0.498908 -0.422881 0.10151 0.993325 -0.0547834 255 255 255 255 
0.316632 0.506365 -0.405117 0.145411 0.986304 -0.0778462 255 255 255 255 
0.355013 0.483751 -0.393752 0.0762392 0.996771 0.0251929 255 255 255 255 
0.0916382 0.509429 -0.445962 -0.0581176 0.993623 -0.0966203 255 255 255 255 
0.0727292 0.496159 -0.39167 -0.0140607 0.999627 0.0234015 255 255 255 255 
0.0776036 0.487046 -0.410165 0.00457312 0.996803 0.0797752 255 255 255 255 
-0.389012 0.498955 -0.198267 -0.0235082 0.999069 0.0361783 255 255 255 255 
-0.420951 0.489864 -0.141446 0.0137695 0.999861 -0.00937775 255 255 255 255 
-0.407773 0.502012 -0.158778 0.00900369 0.99982 0.0167199 255 255 255 255 
-0.170946 0.500706 -0.453412 0.069232 0.996506 -0.0467245 255 255 255 255 
-0.193146 0.486765 -0.404854 -0.183496 0.980058 0.0762552 255 255 255 255 
-0.168272 0.505204 -0.398272 -0.0757492 0.996949 0.0188437 255 255 255 255 
-0.404811 0.487945 -0.451643 -0.0421072 0.99169 -0.121562 255 255 255 255 
-0.428918 0.499603 -0.41536 0.0572237 0.993279 -0.100611 255 255 255 255 
-0.413619 0.486967 -0.405246 0.062852 0.996292 -0.0587538 255 255 255 255 
0.497919 -0.322343 0.395764 0.994884 -0.0622875 0.0795371 255 255 255 255 
0.493723 -0.351518 0.433456 0.997729 0.0188877 0.0646472 255 255 255 255 
0.510288 -0.332205 0.421305 0.996702 -0.0282173 0.0760842 255 255 255 255 
0.495584 -0.0723665 0.1587 0.990289 0.099473 0.0971221 255 255 255 255 
0.492892 -0.0789357 0.190345 0.989352 0.123906 -0.0763497 255 255 255 255 
0.50191 -0.0923339 0.146766 0.994749 0.00994555 0.101859 255 255 255 255 
0.505944 -0.0783049 0.411971 0.997811 -0.0661081 0.00158746 255 255 255 255 
0.49996 -0.0878745 0.432172 0.996349 -0.0698521 0.0490806 255 255 255 255 
0.50471 -0.0885765 0.4214 0.995727 -0.09048 0.0184751 255 255 255 255 
0.505568 0.187957 -0.109895 0.997644 0.066916 0.0151423 255 255 255 255 
0.493044 0.150528 -0.0697097 0.984305 0.153342 0.087351 255 255 255 255 
0.484569 0.169684 -0.0952867 0.994132 0.00554689 0.108032 255 255 255 255 
0.508872 0.445224 -0.358421 0.967529 -0.0329758 0.250599 255 255 255 255 
0.488801 0.393202 -0.300315 0.981651 0.125962 -0.143159 255 255 255 255 
0.501097 0.412743 -0.334681 0.999199 -0.0225825 0.0330413 255 255 255 255 
0.483667 0.451859 -0.10307 0.895616 0.403127 0.188044 255 255 255 255 
0.50902 0.389964 -0.070638 0.992593 0.0914902 -0.0799281 255 255 255 255 
0.485379 0.410898 -0.0823029 0.993736 0.102327 -0.0449143 255 255 255 255 
0.503448 0.199994 0.42169 0.998253 -0.0564766 0.0173802 255 255 255 255 
0.512623 0.164925 0.426254 0.999309 0.0263335 -0.0262297 255 255 255 255 
0.486947 0.163005 0.422995 0.997242 -0.0616311 0.0413638 255 255 255 255 
0.512421 0.42911 0.164868 0.980139 -0.0606764 0.188803 255 255 255 255 
0.497231 0.418115 0.175728 0.999807 -0.0144122 -0.0133484 255 255 255 255 
0.492027 0.416608 0.173508 0.997257 0.0325363 0.0664868 255 255 255 255 
0.498558 0.425444 0.409906 0.996659 -0.071971 0.0386149 255 255 255 255 
0.512814 0.389546 0.448005 0.996291 0.0812603 0.0282974 255 255 255 255 
0.486225 0.413501 0.405037 0.990456 -0.133642 -0.033722 255 255 255 255 
0.506941 0.305272 -0.398827 0.992133 -0.121995 -0.0280875 255 255 255 255 
0.485985 0.353752 -0.443088 0.959108 0.0505255 -0.278495 255 255 255 255 
0.51313 0.359292 -0.410252 0.975987 0.177924 -0.125668 255 255 255 255 
0.499786 0.0577145 -0.162172 0.953978 -0.0826061 0.288275 255 255 255 255 
0.508126 0.0776046 -0.177899 0.975345 -0.030726 0.218539 255 255 255 255 
0.501963 0.107311 -0.164389 0.994531 0.104429 -0.00165829 255 255 255 255 
0.493643 0.0530289 -0.421551 0.989333 0.141388 -0.0350581 255 255 255 255 
0.486526 0.0801473 -0.428487 0.979845 0.140304 0.14219 255 255 255 255 
0.484816 0.0875764 -0.398869 0.985334 0.162568 -0.0518494 255 255 255 255 
0.500972 -0.201132 0.105237 0.992549 -0.0572386 -0.107569 255 255 255 255 
0.48901 -0.162248 0.0615057 0.993178 -0.0809923 -0.0838904 255 255 255 255 
0.493051 -0.154324 0.093426 0.990403 -0.070351 -0.118968 255 255 255 255 
0.49303 -0.442282 0.334284 0.992515 -0.117792 -0.0322475 255 255 255 255 
0.497176 -0.418768 0.31703 0.997829 0.0515837 -0.0409508 255 255 255 255 
0.485478 -0.395893 0.340216 0.996033 -0.0832029 -0.0315436 255 255 255 255 
0.516104 -0.427146 0.0872951 0.997551 0.0278492 -0.0641679 255 255 255 255 
0.495041 -0.421839 0.0537055 0.997439 -0.0658072 0.0280253 255 255 255 255 
0.486146 -0.39225 0.104689 0.994745 0.0999174 -0.0223545 255 255 255 255 
0.494642 -0.178646 -0.401038 0.996203 -0.0799982 -0.034348 255 255 255 255 
0.50768 -0.161683 -0.449148 0.997736 -0.0476411 0.0474714 255 255 255 255 
0.502573 -0.158182 -0.393253 0.989708 0.142666 0.0111309 255 255 255 255 
0.514701 -0.425112 -0.139115 0.980154 -0.104506 0.168453 255 255 255 255 
0.508173 -0.400442 -0.2025 0.979692 0.0732274 -0.18666 255 255 255 255 
0.510406 -0.397222 -0.172354 0.997599 0.057426 -0.0387079 255 255 255 255 
0.494358 -0.427781 -0.39849 0.994746 0.0613434 0.081962 255 255 255 255 
0.50372 -0.398908 -0.42204 0.9973 0.0399264 0.0616364 255 255 255 255 
0.505656 -0.404159 -0.413159 0.997376 0.0575459 -0.0439147 255 255 255 255 
-0.0917291 -0.217676 -0.505832 -0.0642492 0.0650616 -0.995811 255 255 255 255 
-0.0970723 -0.191925 -0.497072 0.0193971 0.00466797 -0.999801 255 255 255 255 
-0.0771346 -0.226753 -0.517225 -0.00507645 -0.0281647 -0.99959 255 255 255 255 
-0.221601 -0.229054 -0.495711 0.157318 -0.0222254 -0.987298 255 255 255 255 
-0.203558 -0.203378 -0.491612 0.175691 0.0288055 -0.984024 255 255 255 255 
-0.182117 -0.22781 -0.485431 0.165986 0.0993612 -0.98111 255 255 255 255 
-0.205564 -0.09095 -0.502033 0.0447301 0.0342818 -0.998411 255 255 255 255 
-0.223306 -0.0664905 -0.500993 -0.00386817 0.00734764 -0.999966 255 255 255 255 
-0.179919 -0.103639 -0.50918 -0.035653 0.0271426 -0.998996 255 255 255 255 
0.0932018 0.229302 -0.512437 -0.0155975 -0.0160149 -0.99975 255 255 255 255 
0.0845495 0.175697 -0.492042 -0.0252294 -0.0274712 -0.999304 255 255 255 255 
0.0660327 0.231865 -0.484879 -0.0468302 -0.0117093 -0.998834 255 255 255 255 
0.232471 0.226663 -0.508123 -0.0933705 0.138959 -0.985886 255 255 255 255 
0.220465 0.18815 -0.512978 -0.122124 0.105986 -0.98684 255 255 255 255 
0.181551 0.217143 -0.483751 -0.0390861 0.0569783 -0.99761 255 255 255 255 
0.234987 0.0823537 -0.484685 0.0218924 -0.0388521 -0.999005 255 255 255 255 
0.203123 0.0557777 -0.489955 -0.158002 0.0767307 -0.984453 255 255 255 255 
0.173959 0.101665 -0.483733 0.0270509 -0.134606 -0.99053 255 255 255 255 
-0.484066 -0.100194 -0.222994 -0.99534 0.0523816 -0.0809571 255 255 255 255 
-0.517085 -0.0913654 -0.194293 -0.999327 0.0258305 -0.0260298 255 255 255 255 
-0.516542 -0.078638 -0.229839 -0.994223 -0.0293777 -0.103233 255 255 255 255 
-0.494765 -0.213201 -0.221476 -0.991324 0.129917 0.0199781 255 255 255 255 
-0.513703 -0.213184 -0.199315 -0.990044 0.121034 0.0718608 255 255 255 255 
-0.492662 -0.178321 -0.222032 -0.999774 0.00762864 -0.019847 255 255 255 255 
-0.490311 -0.229622 -0.0892119 -0.997531 -0.0160564 -0.0683704 255 255 255 255 
-0.51582 -0.206744 -0.0460861 -0.99825 -0.0408054 -0.0427938 255 255 255 255 
-0.499717 -0.202178 -0.0902892 -0.993451 -0.0587448 -0.0980003 255 255 255 255 
-0.495842 0.0924438 0.225743 -0.988986 -0.133182 0.0645636 255 255 255 255 
-0.490939 0.0942453 0.175693 -0.994769 -0.0744101 0.0699894 255 255 255 255 
-0.485484 0.0744419 0.204422 -0.984718 -0.16268 0.0621824 255 255 255 255 
-0.486072 0.220185 0.227027 -0.99402 0.097622 -0.0489327 255 255 255 255 
-0.511226 0.206523 0.197035 -0.993247 0.00652127 -0.115834 255 255 255 255 
-0.496473 0.186887 0.228416 -0.992973 -0.0467931 -0.108697 255 255 255 255 
-0.499401 0.221827 0.093777 -0.997321 0.0339894 -0.0647813 255 255 255 255 
-0.485182 0.202498 0.0608291 -0.975177 0.187299 0.118103 255 255 255 255 
-0.487831 0.191209 0.0817659 -0.989016 0.0801162 0.12421 255 255 255 255 
-0.217428 -0.503259 -0.0779207 -0.0908928 -0.995858 0.0022774 255 255 255 255 
-0.180642 -0.509636 -0.106856 -0.0505165 -0.998294 0.0292836 255 255 255 255 
-0.223235 -0.510726 -0.0695406 -0.0629485 -0.997556 0.0303264 255 255 255 255 
-0.201969 -0.507362 -0.214536 -0.0778982 -0.99479 -0.0657577 255 255 255 255 
-0.192183 -0.483712 -0.20371 -0.0790686 -0.99064 -0.111266 255 255 255 255 
-0.224002 -0.491375 -0.189894 -0.00584276 -0.996546 -0.0828348 255 255 255 255 
-0.0836234 -0.489184 -0.202705 -0.0670102 -0.997547 -0.0202128 255 255 255 255 
-0.0517697 -0.514611 -0.228161 0.0869482 -0.996198 -0.00542689 255 255 255 255 
-0.10172 -0.514111 -0.20441 -0.045474 -0.998078 -0.0421066 255 255 255 255 
0.232681 -0.504933 0.107717 0.00518303 -0.999945 -0.00914308 255 255 255 255 
0.17569 -0.505959 0.0995378 -0.0564361 -0.997597 -0.0401944 255 255 255 255 
0.223778 -0.495604 0.0704054 -0.00427584 -0.994311 -0.106432 255 255 255 255 
0.215328 -0.496492 0.215072 -0.172981 -0.984584 -0.0259347 255 255 255 255 
0.176665 -0.491462 0.215034 -0.103767 -0.994289 0.0249561 255 255 255 255 
0.220692 -0.515994 0.181906 -0.0988885 -0.993827 -0.050277 255 255 255 255 
0.100892 -0.49062 0.224212 -0.128226 -0.987067 0.096214 255 255 255 255 
0.0626433 -0.493253 0.224933 0.0421749 -0.996114 -0.0773152 255 255 255 255 
0.0876451 -0.506622 0.203416 -0.116748 -0.992228 0.0430478 255 255 255 255 
0.221676 0.0867168 0.51534 0.0251461 -0.0605334 0.997849 255 255 255 255 
0.188056 0.0827226 0.509567 0.125062 -0.00330355 0.992143 255 255 255 255 
0.217913 0.0678902 0.503321 0.205875 0.00497287 0.978566 255 255 255 255 
0.232213 0.219197 0.486242 0.0245968 -0.20545 0.978359 255 255 255 255 
0.188677 0.214225 0.509733 0.0780464 -0.153069 0.985129 255 255 255 255 
0.214605 0.198503 0.485667 0.0471502 -0.119145 0.991757 255 255 255 255 
0.0826349 0.228573 0.485528 0.0229908 -0.0437521 0.998778 255 255 255 255 
0.0474911 0.212604 0.512947 0.0410155 0.0892537 0.995164 255 255 255 255 
0.108438 0.17653 0.48656 -0.0274274 0.115004 0.992986 255 255 255 255 
-0.205084 -0.101561 0.487979 -0.0413937 -0.0143521 0.99904 255 255 255 255 
-0.192354 -0.110429 0.492593 -0.0434421 0.0191408 0.998873 255 255 255 255 
-0.235808 -0.0796793 0.511457 0.180407 -0.105685 0.977898 255 255 255 255 
-0.218482 -0.212124 0.515297 -0.035286 0.0105525 0.999322 255 255 255 255 
-0.171789 -0.214159 0.515266 0.0205446 -0.0642768 0.997721 255 255 255 255 
-0.235678 -0.197141 0.503474 -0.0267356 0.064256 0.997575 255 255 255 255 
-0.107428 -0.230526 0.493474 0.0358622 -0.0781117 0.996299 255 255 255 255 
-0.0682687 -0.233909 0.493757 0.0886404 -0.0726414 0.993411 255 255 255 255 
-0.103024 -0.173996 0.513369 -0.0741459 0.0782564 0.994172 255 255 255 255 
0.0774767 0.502893 0.212234 0.0533115 0.99823 0.0263592 255 255 255 255 
0.0910049 0.49434 0.204419 0.0674334 0.997104 -0.0351754 255 255 255 255 
0.0782859 0.49737 0.235843 0.124118 0.990384 -0.0611137 255 255 255 255 
0.222405 0.502709 0.216184 -0.063872 0.997395 0.0335125 255 255 255 255 
0.218986 0.487101 0.203672 -0.100084 0.994335 0.0357829 255 255 255 255 
0.203679 0.484272 0.207426 -0.079994 0.996648 0.017119 255 255 255 255 
0.214953 0.495501 0.102569 -0.115811 0.991801 0.0540215 255 255 255 255 
0.217902 0.505342 0.0694454 -0.0899933 0.991848 -0.0902154 255 255 255 255 
0.187288 0.509673 0.0777928 -0.0861446 0.994395 0.0613023 255 255 255 255 
-0.108574 0.501712 -0.206776 -0.0100291 0.987123 -0.159647 255 255 255 255 
-0.0795933 0.515796 -0.193359 -0.0876136 0.995476 0.0367646 255 255 255 255 
-0.063285 0.491654 -0.213673 -0.0702749 0.993466 -0.0899289 255 255 255 255 
-0.215355 0.516141 -0.235951 0.0300783 0.998258 0.0507591 255 255 255 255 
-0.217274 0.491092 -0.174683 0.0401475 0.996621 0.0716564 255 255 255 255 
-0.195762 0.496495 -0.230521 0.0230192 0.999735 0.000897373 255 255 255 255 
-0.217734 0.49799 -0.103995 -0.0257081 0.989877 0.139578 255 255 255 255 
-0.227871 0.490366 -0.0660676 0.0437783 0.997565 0.054289 255 255 255 255 
-0.175575 0.517002 -0.0982723 -0.107467 0.994108 0.0141407 255 255 255 255 
0.497585 0.208407 0.107398 0.998334 0.0512393 -0.0265476 255 255 255 255 
0.50687 0.185402 0.105971 0.999281 0.0328006 0.0190172 255 255 255 255 
0.514046 0.227809 0.0789541 0.997691 0.0658 -0.0168063 255 255 255 255 
0.483317 0.210092 0.226659 0.990649 -0.0433591 0.129365 255 255 255 255 
0.499867 0.202001 0.235124 0.990649 -0.0433591 0.129365 255 255 255 255 
0.512052 0.222409 0.176945 0.999854 0.0116348 -0.012526 255 255 255 255 
0.493004 0.0935042 0.220254 0.998407 0.0534244 0.0181254 255 255 255 255 
0.501888 0.0566023 0.207984 0.998219 0.0384497 0.0456028 255 255 255 255 
0.507709 0.0863045 0.174245 0.979627 0.127453 -0.1552 255 255 255 255 
0.501338 -0.215761 -0.0829595 0.9708 -0.204327 -0.125691 255 255 255 255 
0.504313 -0.189581 -0.0913432 0.99802 0.0553157 -0.0299568 255 255 255 255 
0.515083 -0.214309 -0.0619613 0.983936 -0.0682386 0.164965 255 255 255 255 
0.498062 -0.204086 -0.233251 0.99433 0.0471182 0.095334 255 255 255 255 
0.487844 -0.176028 -0.232748 0.997948 0.0553999 -0.0321047 255 255 255 255 
0.516274 -0.234661 -0.199274 0.999183 -0.0404074 0.000386432 255 255 255 255 
0.48531 -0.104379 -0.212297 0.992216 -0.124053 0.0108585 255 255 255 255 
0.512336 -0.0676883 -0.218585 0.981642 -0.187268 -0.0361866 255 255 255 255 
0.506456 -0.109776 -0.194347 0.985743 -0.0733663 0.151418 255 255 255 255 
-0.297284 0.180299 -0.49986 0.0805528 -0.131399 -0.988051 255 255 255 255 
-0.316907 0.216951 -0.514093 0.00827712 -0.104112 -0.994531 255 255 255 255 
-0.288239 0.218806 -0.509818 0.121189 -0.0629907 -0.990629 255 255 255 255 
-0.289755 0.0666173 -0.499618 -0.0481849 -0.0478129 -0.997693 255 255 255 255 
-0.325646 0.0836562 -0.504507 -0.00538004 -0.0555097 -0.998444 255 255 255 255 
-0.278351 0.0912291 -0.510086 0.0062939 -0.0165686 -0.999843 255 255 255 255 
-0.419208 0.187239 -0.488635 -0.104042 0.061511 -0.992669 255 255 255 255 
-0.432296 0.228942 -0.491717 0.0820265 -0.232391 -0.969158 255 255 255 255 
-0.401103 0.220977 -0.491159 -0.16002 -0.101184 -0.981914 255 255 255 255 
0.210318 -0.317165 -0.510607 -0.0176047 0.12382 -0.992149 255 255 255 255 
0.196621 -0.269711 -0.48405 -0.0323059 0.0133843 -0.999389 255 255 255 255 
0.203306 -0.285119 -0.485728 -0.035484 0.190505 -0.981045 255 255 255 255 
0.206453 -0.441421 -0.507645 0.0189044 -0.00651076 -0.9998 255 255 255 255 
0.202242 -0.389481 -0.503045 -0.0253131 0.0425407 -0.998774 255 255 255 255 
0.20253 -0.395225 -0.484362 0.0371595 0.0947229 -0.99481 255 255 255 255 
0.0863574 -0.297263 -0.485615 0.0767702 0.0333553 -0.996491 255 255 255 255 
0.0780533 -0.292597 -0.502971 0.136551 0.0198915 -0.990433 255 255 255 255 
0.103909 -0.28751 -0.506109 0.111289 0.000784146 -0.993788 255 255 255 255 
-0.286521 -0.3191 -0.50402 0.0410128 0.000332967 -0.999159 255 255 255 255 
-0.309159 -0.291318 -0.501907 -0.108663 0.0736211 -0.991349 255 255 255 255 
-0.279928 -0.288528 -0.512226 -0.0645278 0.0937189 -0.993505 255 255 255 255 
-0.294462 -0.439797 -0.492288 0.0470932 -0.0779556 -0.995844 255 255 255 255 
-0.299217 -0.4018 -0.507595 -0.0437392 -0.0900715 -0.994974 255 255 255 255 
-0.28291 -0.399945 -0.486987 -0.0965489 -0.16242 -0.981987 255 255 255 255 
-0.395851 -0.311017 -0.511505 0.0959511 0.0226952 -0.995127 255 255 255 255 
-0.453845 -0.268871 -0.489961 -0.371475 0.232328 -0.898905 255 255 255 255 
-0.413766 -0.271531 -0.506618 0.111563 -0.0164916 -0.993621 255 255 255 255 
0.274422 -0.199374 -0.487363 -0.0157605 -0.131906 -0.991137 255 255 255 255 
0.298442 -0.223631 -0.511198 -0.0338621 -0.125023 -0.991576 255 255 255 255 
0.297535 -0.232582 -0.485154 -0.0301695 -0.140187 -0.989665 255 255 255 255 
